1730.039184 -66.691981 305.908301
1728.166633 -66.360230 306.527570
1726.294082 -66.028479 307.146839
1724.421531 -65.696728 307.766108
1722.548980 -65.364977 308.385377
1720.676429 -65.033226 309.004646
1718.803878 -64.701474 309.623914
1716.931327 -64.369723 310.243183
1715.058776 -64.037972 310.862452
1713.186225 -63.706221 311.481721
1711.313674 -63.374470 312.100990
1709.441123 -63.042719 312.720259
1707.568572 -62.710967 313.339527
1705.696021 -62.379216 313.958796
1703.823470 -62.047465 314.578065
1701.950919 -61.715714 315.197334
1700.078368 -61.383963 315.816603
1698.205817 -61.052212 316.435872
1696.333266 -60.720460 317.055140
1694.460715 -60.388709 317.674409
1692.588164 -60.056958 318.293678
1690.715613 -59.725207 318.912947
1688.843062 -59.393456 319.532216
1686.970511 -59.061705 320.151485
1685.097960 -58.729953 320.770753
1683.225409 -58.398202 321.390022
1681.352858 -58.066451 322.009291
1679.480307 -57.734700 322.628560
1677.607756 -57.402949 323.247829
1675.735205 -57.071198 323.867098
1673.862654 -56.739447 324.486366
1671.990103 -56.407695 325.105635
1670.117552 -56.075944 325.724904
1668.245001 -55.744193 326.344173
1666.372450 -55.412442 326.963442
1664.499899 -55.080691 327.582711
1662.627348 -54.748940 328.201980
1660.754797 -54.417188 328.821248
1658.882246 -54.085437 329.440517
1657.009695 -53.753686 330.059786
1655.137144 -53.421935 330.679055
1653.264593 -53.090184 331.298324
1651.392042 -52.758433 331.917593
1649.519491 -52.426681 332.536861
1647.646940 -52.094930 333.156130
1645.774389 -51.763179 333.775399
1643.901838 -51.431428 334.394668
1642.029287 -51.099677 335.013937
1640.156736 -50.767926 335.633206
1638.284185 -50.436174 336.252474
1636.411634 -50.104423 336.871743
1633.000000 -49.500000 338.000000
1631.000000 -49.500000 338.000000
1629.000000 -49.500000 338.000000
1627.000000 -49.500000 338.000000
1625.000000 -49.500000 338.000000
1623.000000 -49.500000 338.000000
1621.000000 -49.500000 338.000000
1619.000000 -49.500000 338.000000
1617.000000 -49.500000 338.000000
1615.000000 -49.500000 338.000000
1613.000000 -49.500000 338.000000
1611.000000 -49.500000 338.000000
1609.000000 -49.500000 338.000000
1607.000000 -49.500000 338.000000
1605.000000 -49.500000 338.000000
1603.000000 -49.500000 338.000000
1601.000000 -49.500000 338.000000
1599.000000 -49.500000 338.000000
1597.000000 -49.500000 338.000000
1593.000000 -49.500000 338.000000
1591.040459 -49.500000 338.400247
1589.080917 -49.500000 338.800494
1587.121376 -49.500000 339.200740
1585.161834 -49.500000 339.600987
1583.202293 -49.500000 340.001234
1581.242752 -49.500000 340.401481
1579.283210 -49.500000 340.801727
1577.323669 -49.500000 341.201974
1575.364127 -49.500000 341.602221
1573.404586 -49.500000 342.002468
1571.445044 -49.500000 342.402714
1569.485503 -49.500000 342.802961
1567.525962 -49.500000 343.203208
1565.566420 -49.500000 343.603455
1563.606879 -49.500000 344.003701
1561.647337 -49.500000 344.403948
1559.687796 -49.500000 344.804195
1557.728255 -49.500000 345.204442
1555.768713 -49.500000 345.604688
1553.809172 -49.500000 346.004935
1551.849630 -49.500000 346.405182
1549.890089 -49.500000 346.805429
1547.930548 -49.500000 347.205675
1545.971006 -49.500000 347.605922
1544.011465 -49.500000 348.006169
1542.051923 -49.500000 348.406416
1540.092382 -49.500000 348.806662
1538.132841 -49.500000 349.206909
1536.173299 -49.500000 349.607156
1534.213758 -49.500000 350.007403
1532.254216 -49.500000 350.407649
1530.294675 -49.500000 350.807896
1528.335133 -49.500000 351.208143
1526.375592 -49.500000 351.608390
1524.416051 -49.500000 352.008636
1522.456509 -49.500000 352.408883
1520.496968 -49.500000 352.809130
1518.537426 -49.500000 353.209377
1516.577885 -49.500000 353.609623
1514.618344 -49.500000 354.009870
1512.658802 -49.500000 354.410117
1510.699261 -49.500000 354.810364
1508.739719 -49.500000 355.210611
1506.780178 -49.500000 355.610857
1504.820637 -49.500000 356.011104
1502.861095 -49.500000 356.411351
1500.901554 -49.500000 356.811598
1498.942012 -49.500000 357.211844
1496.982471 -49.500000 357.612091
1495.022930 -49.500000 358.012338
1493.063388 -49.500000 358.412585
1491.103847 -49.500000 358.812831
1489.144305 -49.500000 359.213078
1487.184764 -49.500000 359.613325
1485.225222 -49.500000 360.013572
1483.265681 -49.500000 360.413818
1481.306140 -49.500000 360.814065
1479.346598 -49.500000 361.214312
1477.387057 -49.500000 361.614559
1475.427515 -49.500000 362.014805
1473.467974 -49.500000 362.415052
1471.508433 -49.500000 362.815299
1469.548891 -49.500000 363.215546
1467.589350 -49.500000 363.615792
1465.629808 -49.500000 364.016039
1463.670267 -49.500000 364.416286
1461.710726 -49.500000 364.816533
1459.751184 -49.500000 365.216779
1457.791643 -49.500000 365.617026
1455.832101 -49.500000 366.017273
1453.872560 -49.500000 366.417520
1451.913019 -49.500000 366.817766
1449.953477 -49.500000 367.218013
1447.993936 -49.500000 367.618260
1446.034394 -49.500000 368.018507
1444.074853 -49.500000 368.418753
1442.115311 -49.500000 368.819000
1440.155770 -49.500000 369.219247
1438.196229 -49.500000 369.619494
1436.236687 -49.500000 370.019740
1434.277146 -49.500000 370.419987
1432.317604 -49.500000 370.820234
1430.358063 -49.500000 371.220481
1428.398522 -49.500000 371.620727
1426.438980 -49.500000 372.020974
1424.479439 -49.500000 372.421221
1422.519897 -49.500000 372.821468
1420.560356 -49.500000 373.221715
1418.600815 -49.500000 373.621961
1416.641273 -49.500000 374.022208
1414.681732 -49.500000 374.422455
1412.722190 -49.500000 374.822702
1410.762649 -49.500000 375.222948
1408.803108 -49.500000 375.623195
1406.843566 -49.500000 376.023442
1404.884025 -49.500000 376.423689
1402.924483 -49.500000 376.823935
1400.964942 -49.500000 377.224182
1399.005400 -49.500000 377.624429
1397.045859 -49.500000 378.024676
1395.086318 -49.500000 378.424922
1393.126776 -49.500000 378.825169
1391.167235 -49.500000 379.225416
1389.207693 -49.500000 379.625663
1387.248152 -49.500000 380.025909
1385.288611 -49.500000 380.426156
1383.329069 -49.500000 380.826403
1381.369528 -49.500000 381.226650
1379.409986 -49.500000 381.626896
1377.450445 -49.500000 382.027143
1375.490904 -49.500000 382.427390
1373.531362 -49.500000 382.827637
1371.571821 -49.500000 383.227883
1369.612279 -49.500000 383.628130
1367.652738 -49.500000 384.028377
1365.693197 -49.500000 384.428624
1363.733655 -49.500000 384.828870
1361.774114 -49.500000 385.229117
1358.000000 -49.500000 386.000000
1357.748616 -51.484139 386.000000
1357.497232 -53.468277 386.000000
1357.245848 -55.452416 386.000000
1356.994464 -57.436554 386.000000
1356.743080 -59.420693 386.000000
1356.491696 -61.404832 386.000000
1356.240311 -63.388970 386.000000
1355.988927 -65.373109 386.000000
1355.737543 -67.357248 386.000000
1355.486159 -69.341386 386.000000
1355.234775 -71.325525 386.000000
1354.983391 -73.309663 386.000000
1354.732007 -75.293802 386.000000
1354.480623 -77.277941 386.000000
1354.229239 -79.262079 386.000000
1353.977855 -81.246218 386.000000
1353.726471 -83.230356 386.000000
1353.475087 -85.214495 386.000000
1353.223703 -87.198634 386.000000
1352.972318 -89.182772 386.000000
1352.720934 -91.166911 386.000000
1352.469550 -93.151050 386.000000
1352.218166 -95.135188 386.000000
1351.966782 -97.119327 386.000000
1351.715398 -99.103465 386.000000
1351.464014 -101.087604 386.000000
1351.212630 -103.071743 386.000000
1350.961246 -105.055881 386.000000
1350.709862 -107.040020 386.000000
1350.458478 -109.024158 386.000000
1350.207094 -111.008297 386.000000
1349.955710 -112.992436 386.000000
1349.704325 -114.976574 386.000000
1349.452941 -116.960713 386.000000
1349.201557 -118.944852 386.000000
1348.950173 -120.928990 386.000000
1348.698789 -122.913129 386.000000
1348.447405 -124.897267 386.000000
1348.196021 -126.881406 386.000000
1347.944637 -128.865545 386.000000
1347.693253 -130.849683 386.000000
1347.441869 -132.833822 386.000000
1347.190485 -134.817960 386.000000
1346.939101 -136.802099 386.000000
1346.687716 -138.786238 386.000000
1346.436332 -140.770376 386.000000
1346.184948 -142.754515 386.000000
1345.933564 -144.738654 386.000000
1345.682180 -146.722792 386.000000
1345.430796 -148.706931 386.000000
1345.179412 -150.691069 386.000000
1344.928028 -152.675208 386.000000
1344.676644 -154.659347 386.000000
1344.425260 -156.643485 386.000000
1344.000000 -160.000000 386.000000
1344.000000 -162.000000 386.000000
1344.000000 -164.000000 386.000000
1344.000000 -166.000000 386.000000
1344.000000 -168.000000 386.000000
1344.000000 -170.000000 386.000000
1344.000000 -172.000000 386.000000
1344.000000 -174.000000 386.000000
1344.000000 -176.000000 386.000000
1344.000000 -178.000000 386.000000
1344.000000 -180.000000 386.000000
1344.000000 -182.000000 386.000000
1344.000000 -184.000000 386.000000
1344.000000 -186.000000 386.000000
1344.000000 -188.000000 386.000000
1344.000000 -190.000000 386.000000
1344.000000 -192.000000 386.000000
1344.000000 -194.000000 386.000000
1344.000000 -196.000000 386.000000
1344.000000 -198.000000 386.000000
1344.000000 -200.000000 386.000000
1344.000000 -202.000000 386.000000
1344.000000 -204.000000 386.000000
1344.000000 -206.000000 386.000000
1344.000000 -208.000000 386.000000
1344.000000 -210.000000 386.000000
1344.000000 -212.000000 386.000000
1344.000000 -214.000000 386.000000
1344.000000 -216.000000 386.000000
1344.000000 -218.000000 386.000000
1344.000000 -220.000000 386.000000
1344.000000 -222.000000 386.000000
1344.000000 -224.000000 386.000000
1344.000000 -226.000000 386.000000
1344.000000 -228.000000 386.000000
1344.000000 -230.000000 386.000000
1344.000000 -232.000000 386.000000
1344.000000 -234.000000 386.000000
1344.000000 -236.000000 386.000000
1344.000000 -238.000000 386.000000
1344.000000 -240.000000 386.000000
1344.000000 -242.000000 386.000000
1344.000000 -244.000000 386.000000
1344.000000 -246.000000 386.000000
1344.000000 -248.000000 386.000000
1344.000000 -250.000000 386.000000
1344.000000 -252.000000 386.000000
1344.000000 -254.000000 386.000000
1344.000000 -256.000000 386.000000
1344.000000 -258.000000 386.000000
1344.000000 -260.000000 386.000000
1344.000000 -262.000000 386.000000
1344.000000 -264.000000 386.000000
1344.000000 -266.000000 386.000000
1344.000000 -268.000000 386.000000
1344.000000 -270.000000 386.000000
1344.000000 -272.000000 386.000000
1344.000000 -274.000000 386.000000
1344.000000 -276.000000 386.000000
1344.000000 -278.000000 386.000000
1344.000000 -280.000000 386.000000
1344.000000 -282.000000 386.000000
1344.000000 -284.000000 386.000000
1344.000000 -286.000000 386.000000
1344.000000 -288.000000 386.000000
1344.000000 -290.000000 386.000000
1344.000000 -292.000000 386.000000
1344.000000 -296.000000 386.000000
1343.464567 -297.911084 385.752877
1342.929134 -299.822168 385.505754
1342.393701 -301.733252 385.258631
1341.858268 -303.644336 385.011508
1341.322835 -305.555420 384.764385
1340.787402 -307.466504 384.517262
1340.251969 -309.377587 384.270140
1339.716536 -311.288671 384.023017
1339.181103 -313.199755 383.775894
1338.645670 -315.110839 383.528771
1338.110237 -317.021923 383.281648
1337.574804 -318.933007 383.034525
1337.039371 -320.844091 382.787402
1336.503938 -322.755175 382.540279
1335.968505 -324.666259 382.293156
1335.433072 -326.577343 382.046033
1334.897639 -328.488427 381.798910
1334.362206 -330.399511 381.551787
1333.826773 -332.310595 381.304664
1333.291340 -334.221678 381.057542
1332.755907 -336.132762 380.810419
1332.220474 -338.043846 380.563296
1331.685041 -339.954930 380.316173
1331.149608 -341.866014 380.069050
1330.614175 -343.777098 379.821927
1330.078742 -345.688182 379.574804
1329.543309 -347.599266 379.327681
1329.007876 -349.510350 379.080558
1328.472443 -351.421434 378.833435
1327.937010 -353.332518 378.586312
1327.401577 -355.243602 378.339189
1326.866144 -357.154686 378.092067
1326.330711 -359.065770 377.844944
1325.795278 -360.976853 377.597821
1325.259845 -362.887937 377.350698
1324.724412 -364.799021 377.103575
1324.188979 -366.710105 376.856452
1323.653546 -368.621189 376.609329
1323.118113 -370.532273 376.362206
1322.582680 -372.443357 376.115083
1322.047247 -374.354441 375.867960
1321.511814 -376.265525 375.620837
1320.976381 -378.176609 375.373714
1320.440948 -380.087693 375.126591
1319.905515 -381.998777 374.879469
1319.370082 -383.909861 374.632346
1318.834649 -385.820944 374.385223
1318.299216 -387.732028 374.138100
1317.763783 -389.643112 373.890977
1317.228350 -391.554196 373.643854
1316.692917 -393.465280 373.396731
1316.157484 -395.376364 373.149608
1315.622051 -397.287448 372.902485
1315.086618 -399.198532 372.655362
1314.551185 -401.109616 372.408239
1314.015752 -403.020700 372.161116
1313.480319 -404.931784 371.913993
1312.944886 -406.842868 371.666871
1312.409453 -408.753952 371.419748
1311.874020 -410.665035 371.172625
1311.338587 -412.576119 370.925502
1310.803154 -414.487203 370.678379
1310.267721 -416.398287 370.431256
1309.732288 -418.309371 370.184133
1309.196855 -420.220455 369.937010
1308.661422 -422.131539 369.689887
1308.125989 -424.042623 369.442764
1307.590556 -425.953707 369.195641
1307.055123 -427.864791 368.948518
1306.519690 -429.775875 368.701396
1305.984257 -431.686959 368.454273
1305.448824 -433.598043 368.207150
1304.913391 -435.509127 367.960027
1304.377958 -437.420210 367.712904
1303.842525 -439.331294 367.465781
1303.307092 -441.242378 367.218658
1302.771659 -443.153462 366.971535
1302.236226 -445.064546 366.724412
1301.700793 -446.975630 366.477289
1301.165360 -448.886714 366.230166
1300.629927 -450.797798 365.983043
1300.094494 -452.708882 365.735920
1299.559061 -454.619966 365.488798
1299.023628 -456.531050 365.241675
1298.488195 -458.442134 364.994552
1297.952762 -460.353218 364.747429
1297.417329 -462.264301 364.500306
1296.881896 -464.175385 364.253183
1296.346463 -466.086469 364.006060
1295.811030 -467.997553 363.758937
1295.275597 -469.908637 363.511814
1294.740164 -471.819721 363.264691
1294.204731 -473.730805 363.017568
1293.669298 -475.641889 362.770445
1293.133865 -477.552973 362.523322
1292.598432 -479.464057 362.276200
1292.062999 -481.375141 362.029077
1291.527566 -483.286225 361.781954
1290.992133 -485.197309 361.534831
1290.456700 -487.108392 361.287708
1289.921267 -489.019476 361.040585
1289.385834 -490.930560 360.793462
1288.850401 -492.841644 360.546339
1288.314968 -494.752728 360.299216
1287.779535 -496.663812 360.052093
1287.244102 -498.574896 359.804970
1286.708669 -500.485980 359.557847
1286.173236 -502.397064 359.310724
1285.637803 -504.308148 359.063602
1285.102370 -506.219232 358.816479
1284.566937 -508.130316 358.569356
1284.031504 -510.041400 358.322233
1283.496071 -511.952484 358.075110
1282.960638 -513.863567 357.827987
1282.425205 -515.774651 357.580864
1281.889772 -517.685735 357.333741
1281.354339 -519.596819 357.086618
1280.818906 -521.507903 356.839495
1280.283473 -523.418987 356.592372
1279.748040 -525.330071 356.345249
1279.000000 -528.000000 356.000000
1279.048898 -529.999402 356.000000
1279.097797 -531.998804 356.000000
1279.146695 -533.998206 356.000000
1279.195594 -535.997609 356.000000
1279.244492 -537.997011 356.000000
1279.293391 -539.996413 356.000000
1279.342289 -541.995815 356.000000
1279.391187 -543.995217 356.000000
1279.440086 -545.994619 356.000000
1279.488984 -547.994021 356.000000
1279.537883 -549.993424 356.000000
1279.586781 -551.992826 356.000000
1279.635679 -553.992228 356.000000
1279.684578 -555.991630 356.000000
1279.733476 -557.991032 356.000000
1279.782375 -559.990434 356.000000
1279.831273 -561.989836 356.000000
1279.880172 -563.989239 356.000000
1279.929070 -565.988641 356.000000
1279.977968 -567.988043 356.000000
1280.026867 -569.987445 356.000000
1280.075765 -571.986847 356.000000
1280.124664 -573.986249 356.000000
1280.173562 -575.985652 356.000000
1280.222461 -577.985054 356.000000
1280.271359 -579.984456 356.000000
1280.320257 -581.983858 356.000000
1280.369156 -583.983260 356.000000
1280.418054 -585.982662 356.000000
1280.466953 -587.982064 356.000000
1280.515851 -589.981467 356.000000
1280.564750 -591.980869 356.000000
1280.613648 -593.980271 356.000000
1280.662546 -595.979673 356.000000
1280.711445 -597.979075 356.000000
1280.760343 -599.978477 356.000000
1280.809242 -601.977879 356.000000
1280.858140 -603.977282 356.000000
1280.907038 -605.976684 356.000000
1280.955937 -607.976086 356.000000
1281.004835 -609.975488 356.000000
1281.053734 -611.974890 356.000000
1281.102632 -613.974292 356.000000
1281.151531 -615.973694 356.000000
1281.200429 -617.973097 356.000000
1281.249327 -619.972499 356.000000
1281.298226 -621.971901 356.000000
1281.347124 -623.971303 356.000000
1281.396023 -625.970705 356.000000
1281.444921 -627.970107 356.000000
1281.493820 -629.969509 356.000000
1281.542718 -631.968912 356.000000
1281.591616 -633.968314 356.000000
1281.640515 -635.967716 356.000000
1281.689413 -637.967118 356.000000
1281.738312 -639.966520 356.000000
1281.787210 -641.965922 356.000000
1281.836108 -643.965325 356.000000
1281.885007 -645.964727 356.000000
1281.933905 -647.964129 356.000000
1281.982804 -649.963531 356.000000
1282.031702 -651.962933 356.000000
1282.080601 -653.962335 356.000000
1282.129499 -655.961737 356.000000
1282.178397 -657.961140 356.000000
1282.227296 -659.960542 356.000000
1282.276194 -661.959944 356.000000
1282.325093 -663.959346 356.000000
1282.373991 -665.958748 356.000000
1282.422890 -667.958150 356.000000
1282.471788 -669.957552 356.000000
1282.520686 -671.956955 356.000000
1282.569585 -673.956357 356.000000
1282.618483 -675.955759 356.000000
1282.667382 -677.955161 356.000000
1282.716280 -679.954563 356.000000
1282.765178 -681.953965 356.000000
1282.814077 -683.953367 356.000000
1282.862975 -685.952770 356.000000
1282.911874 -687.952172 356.000000
1282.960772 -689.951574 356.000000
1283.009671 -691.950976 356.000000
1283.058569 -693.950378 356.000000
1283.107467 -695.949780 356.000000
1283.156366 -697.949182 356.000000
1283.205264 -699.948585 356.000000
1283.254163 -701.947987 356.000000
1283.303061 -703.947389 356.000000
1283.351960 -705.946791 356.000000
1283.400858 -707.946193 356.000000
1283.449756 -709.945595 356.000000
1283.498655 -711.944997 356.000000
1283.547553 -713.944400 356.000000
1283.596452 -715.943802 356.000000
1283.645350 -717.943204 356.000000
1283.694249 -719.942606 356.000000
1283.743147 -721.942008 356.000000
1283.792045 -723.941410 356.000000
1283.840944 -725.940813 356.000000
1283.889842 -727.940215 356.000000
1283.938741 -729.939617 356.000000
1283.987639 -731.939019 356.000000
1284.036537 -733.938421 356.000000
1284.085436 -735.937823 356.000000
1284.134334 -737.937225 356.000000
1284.183233 -739.936628 356.000000
1284.232131 -741.936030 356.000000
1284.281030 -743.935432 356.000000
1284.329928 -745.934834 356.000000
1284.378826 -747.934236 356.000000
1284.427725 -749.933638 356.000000
1284.476623 -751.933040 356.000000
1284.525522 -753.932443 356.000000
1284.574420 -755.931845 356.000000
1284.623319 -757.931247 356.000000
1284.672217 -759.930649 356.000000
1284.721115 -761.930051 356.000000
1284.770014 -763.929453 356.000000
1284.818912 -765.928855 356.000000
1284.867811 -767.928258 356.000000
1284.916709 -769.927660 356.000000
1284.965607 -771.927062 356.000000
1285.014506 -773.926464 356.000000
1285.063404 -775.925866 356.000000
1285.112303 -777.925268 356.000000
1285.161201 -779.924670 356.000000
1285.210100 -781.924073 356.000000
1285.258998 -783.923475 356.000000
1285.307896 -785.922877 356.000000
1285.356795 -787.922279 356.000000
1285.405693 -789.921681 356.000000
1285.454592 -791.921083 356.000000
1285.503490 -793.920486 356.000000
1285.552389 -795.919888 356.000000
1285.601287 -797.919290 356.000000
1285.650185 -799.918692 356.000000
1285.699084 -801.918094 356.000000
1285.747982 -803.917496 356.000000
1285.796881 -805.916898 356.000000
1285.845779 -807.916301 356.000000
1285.894678 -809.915703 356.000000
1285.943576 -811.915105 356.000000
1285.992474 -813.914507 356.000000
1286.041373 -815.913909 356.000000
1286.090271 -817.913311 356.000000
1286.139170 -819.912713 356.000000
1286.188068 -821.912116 356.000000
1286.236966 -823.911518 356.000000
1286.285865 -825.910920 356.000000
1286.334763 -827.910322 356.000000
1286.383662 -829.909724 356.000000
1286.432560 -831.909126 356.000000
1286.481459 -833.908528 356.000000
1286.530357 -835.907931 356.000000
1286.579255 -837.907333 356.000000
1286.628154 -839.906735 356.000000
1286.677052 -841.906137 356.000000
1286.725951 -843.905539 356.000000
1286.774849 -845.904941 356.000000
1286.823748 -847.904343 356.000000
1286.872646 -849.903746 356.000000
1286.921544 -851.903148 356.000000
1286.970443 -853.902550 356.000000
1287.019341 -855.901952 356.000000
1287.068240 -857.901354 356.000000
1287.117138 -859.900756 356.000000
1287.166036 -861.900159 356.000000
1287.214935 -863.899561 356.000000
1287.263833 -865.898963 356.000000
1287.312732 -867.898365 356.000000
1287.361630 -869.897767 356.000000
1287.410529 -871.897169 356.000000
1287.459427 -873.896571 356.000000
1287.508325 -875.895974 356.000000
1287.557224 -877.895376 356.000000
1287.606122 -879.894778 356.000000
1287.655021 -881.894180 356.000000
1287.703919 -883.893582 356.000000
1287.752818 -885.892984 356.000000
1287.801716 -887.892386 356.000000
1287.850614 -889.891789 356.000000
1287.899513 -891.891191 356.000000
1287.948411 -893.890593 356.000000
1288.000000 -896.000000 356.000000
1286.585786 -897.414214 356.000000
1285.171573 -898.828427 356.000000
1283.757359 -900.242641 356.000000
1282.343146 -901.656854 356.000000
1280.928932 -903.071068 356.000000
1279.514719 -904.485281 356.000000
1278.100505 -905.899495 356.000000
1276.686292 -907.313708 356.000000
1275.272078 -908.727922 356.000000
1273.857864 -910.142136 356.000000
1272.443651 -911.556349 356.000000
1271.029437 -912.970563 356.000000
1269.615224 -914.384776 356.000000
1268.201010 -915.798990 356.000000
1266.786797 -917.213203 356.000000
1265.372583 -918.627417 356.000000
1263.958369 -920.041631 356.000000
1262.544156 -921.455844 356.000000
1261.129942 -922.870058 356.000000
1259.715729 -924.284271 356.000000
1258.301515 -925.698485 356.000000
1256.887302 -927.112698 356.000000
1255.473088 -928.526912 356.000000
1254.058875 -929.941125 356.000000
1252.644661 -931.355339 356.000000
1251.230447 -932.769553 356.000000
1249.816234 -934.183766 356.000000
1248.402020 -935.597980 356.000000
1246.987807 -937.012193 356.000000
1245.573593 -938.426407 356.000000
1244.159380 -939.840620 356.000000
1242.745166 -941.254834 356.000000
1241.330952 -942.669048 356.000000
1239.916739 -944.083261 356.000000
1238.502525 -945.497475 356.000000
1237.088312 -946.911688 356.000000
1235.674098 -948.325902 356.000000
1234.259885 -949.740115 356.000000
1232.845671 -951.154329 356.000000
1231.431458 -952.568542 356.000000
1230.017244 -953.982756 356.000000
1228.603030 -955.396970 356.000000
1227.188817 -956.811183 356.000000
1225.774603 -958.225397 356.000000
1224.000000 -960.000000 356.000000
1223.493281 -961.934744 356.000000
1222.986562 -963.869489 356.000000
1222.479844 -965.804233 356.000000
1221.973125 -967.738978 356.000000
1221.466406 -969.673722 356.000000
1220.959687 -971.608467 356.000000
1220.452969 -973.543211 356.000000
1219.946250 -975.477956 356.000000
1219.439531 -977.412700 356.000000
1218.932812 -979.347444 356.000000
1218.426093 -981.282189 356.000000
1217.919375 -983.216933 356.000000
1217.412656 -985.151678 356.000000
1216.905937 -987.086422 356.000000
1216.399218 -989.021167 356.000000
1215.892499 -990.955911 356.000000
1215.385781 -992.890656 356.000000
1214.879062 -994.825400 356.000000
1214.372343 -996.760144 356.000000
1213.865624 -998.694889 356.000000
1213.358906 -1000.629633 356.000000
1212.852187 -1002.564378 356.000000
1212.345468 -1004.499122 356.000000
1211.838749 -1006.433867 356.000000
1211.332030 -1008.368611 356.000000
1210.825312 -1010.303356 356.000000
1210.318593 -1012.238100 356.000000
1209.811874 -1014.172845 356.000000
1209.305155 -1016.107589 356.000000
1208.798436 -1018.042333 356.000000
1208.291718 -1019.977078 356.000000
1207.784999 -1021.911822 356.000000
1207.278280 -1023.846567 356.000000
1206.771561 -1025.781311 356.000000
1206.264843 -1027.716056 356.000000
1205.758124 -1029.650800 356.000000
1205.251405 -1031.585545 356.000000
1204.744686 -1033.520289 356.000000
1204.237967 -1035.455033 356.000000
1203.731249 -1037.389778 356.000000
1203.224530 -1039.324522 356.000000
1202.717811 -1041.259267 356.000000
1202.211092 -1043.194011 356.000000
1201.704374 -1045.128756 356.000000
1201.197655 -1047.063500 356.000000
1200.690936 -1048.998245 356.000000
1200.184217 -1050.932989 356.000000
1199.677498 -1052.867733 356.000000
1199.170780 -1054.802478 356.000000
1198.664061 -1056.737222 356.000000
1198.157342 -1058.671967 356.000000
1197.650623 -1060.606711 356.000000
1197.143904 -1062.541456 356.000000
1196.637186 -1064.476200 356.000000
1196.130467 -1066.410945 356.000000
1195.623748 -1068.345689 356.000000
1195.117029 -1070.280433 356.000000
1194.610311 -1072.215178 356.000000
1194.103592 -1074.149922 356.000000
1193.596873 -1076.084667 356.000000
1193.090154 -1078.019411 356.000000
1192.583435 -1079.954156 356.000000
1192.076717 -1081.888900 356.000000
1191.569998 -1083.823645 356.000000
1191.063279 -1085.758389 356.000000
1190.556560 -1087.693133 356.000000
1190.049841 -1089.627878 356.000000
1189.543123 -1091.562622 356.000000
1189.036404 -1093.497367 356.000000
1188.529685 -1095.432111 356.000000
1188.022966 -1097.366856 356.000000
1187.516248 -1099.301600 356.000000
1187.009529 -1101.236345 356.000000
1186.502810 -1103.171089 356.000000
1185.996091 -1105.105834 356.000000
1185.489372 -1107.040578 356.000000
1184.982654 -1108.975322 356.000000
1184.475935 -1110.910067 356.000000
1183.969216 -1112.844811 356.000000
1183.462497 -1114.779556 356.000000
1182.955779 -1116.714300 356.000000
1182.449060 -1118.649045 356.000000
1181.942341 -1120.583789 356.000000
1181.435622 -1122.518534 356.000000
1180.928903 -1124.453278 356.000000
1180.422185 -1126.388022 356.000000
1179.915466 -1128.322767 356.000000
1179.408747 -1130.257511 356.000000
1178.902028 -1132.192256 356.000000
1178.395309 -1134.127000 356.000000
1177.888591 -1136.061745 356.000000
1177.381872 -1137.996489 356.000000
1176.875153 -1139.931234 356.000000
1176.368434 -1141.865978 356.000000
1175.861716 -1143.800722 356.000000
1175.354997 -1145.735467 356.000000
1174.848278 -1147.670211 356.000000
1174.341559 -1149.604956 356.000000
1173.834840 -1151.539700 356.000000
1173.328122 -1153.474445 356.000000
1172.821403 -1155.409189 356.000000
1172.314684 -1157.343934 356.000000
1171.807965 -1159.278678 356.000000
1171.301246 -1161.213422 356.000000
1170.794528 -1163.148167 356.000000
1170.287809 -1165.082911 356.000000
1169.781090 -1167.017656 356.000000
1169.274371 -1168.952400 356.000000
1168.767653 -1170.887145 356.000000
1168.260934 -1172.821889 356.000000
1167.754215 -1174.756634 356.000000
1167.247496 -1176.691378 356.000000
1166.740777 -1178.626122 356.000000
1166.234059 -1180.560867 356.000000
1165.727340 -1182.495611 356.000000
1165.220621 -1184.430356 356.000000
1164.713902 -1186.365100 356.000000
1164.207184 -1188.299845 356.000000
1163.700465 -1190.234589 356.000000
1163.193746 -1192.169334 356.000000
1162.687027 -1194.104078 356.000000
1162.180308 -1196.038823 356.000000
1161.673590 -1197.973567 356.000000
1161.166871 -1199.908311 356.000000
1160.660152 -1201.843056 356.000000
1160.153433 -1203.777800 356.000000
1159.646714 -1205.712545 356.000000
1159.139996 -1207.647289 356.000000
1158.633277 -1209.582034 356.000000
1158.126558 -1211.516778 356.000000
1157.619839 -1213.451523 356.000000
1157.113121 -1215.386267 356.000000
1156.606402 -1217.321011 356.000000
1156.099683 -1219.255756 356.000000
1155.592964 -1221.190500 356.000000
1155.086245 -1223.125245 356.000000
1154.579527 -1225.059989 356.000000
1154.072808 -1226.994734 356.000000
1153.566089 -1228.929478 356.000000
1153.059370 -1230.864223 356.000000
1152.552652 -1232.798967 356.000000
1152.045933 -1234.733711 356.000000
1151.539214 -1236.668456 356.000000
1151.032495 -1238.603200 356.000000
1150.525776 -1240.537945 356.000000
1150.019058 -1242.472689 356.000000
1149.512339 -1244.407434 356.000000
1149.005620 -1246.342178 356.000000
1148.498901 -1248.276923 356.000000
1147.992182 -1250.211667 356.000000
1147.485464 -1252.146411 356.000000
1146.978745 -1254.081156 356.000000
1146.472026 -1256.015900 356.000000
1145.965307 -1257.950645 356.000000
1145.458589 -1259.885389 356.000000
1144.951870 -1261.820134 356.000000
1144.445151 -1263.754878 356.000000
1143.938432 -1265.689623 356.000000
1143.431713 -1267.624367 356.000000
1142.924995 -1269.559111 356.000000
1142.418276 -1271.493856 356.000000
1141.911557 -1273.428600 356.000000
1141.404838 -1275.363345 356.000000
1140.898119 -1277.298089 356.000000
1140.391401 -1279.232834 356.000000
1139.884682 -1281.167578 356.000000
1139.377963 -1283.102323 356.000000
1138.871244 -1285.037067 356.000000
1138.364526 -1286.971812 356.000000
1137.857807 -1288.906556 356.000000
1137.351088 -1290.841300 356.000000
1136.844369 -1292.776045 356.000000
1136.000000 -1296.000000 356.000000
1135.435667 -1297.918731 356.000000
1134.871335 -1299.837462 356.000000
1134.307002 -1301.756193 356.000000
1133.742669 -1303.674924 356.000000
1133.178337 -1305.593655 356.000000
1132.614004 -1307.512386 356.000000
1132.049671 -1309.431117 356.000000
1131.485339 -1311.349848 356.000000
1130.921006 -1313.268579 356.000000
1130.356674 -1315.187310 356.000000
1129.792341 -1317.106041 356.000000
1129.228008 -1319.024772 356.000000
1128.663676 -1320.943503 356.000000
1128.099343 -1322.862234 356.000000
1127.535010 -1324.780965 356.000000
1126.970678 -1326.699696 356.000000
1126.406345 -1328.618427 356.000000
1125.842012 -1330.537158 356.000000
1125.277680 -1332.455889 356.000000
1124.713347 -1334.374620 356.000000
1124.149014 -1336.293351 356.000000
1123.584682 -1338.212082 356.000000
1123.020349 -1340.130813 356.000000
1122.456016 -1342.049544 356.000000
1121.891684 -1343.968275 356.000000
1121.327351 -1345.887006 356.000000
1120.763019 -1347.805737 356.000000
1120.198686 -1349.724468 356.000000
1119.634353 -1351.643199 356.000000
1119.070021 -1353.561930 356.000000
1118.505688 -1355.480661 356.000000
1117.941355 -1357.399392 356.000000
1117.377023 -1359.318123 356.000000
1116.812690 -1361.236854 356.000000
1116.248357 -1363.155585 356.000000
1115.684025 -1365.074316 356.000000
1115.119692 -1366.993047 356.000000
1114.555359 -1368.911778 356.000000
1113.991027 -1370.830509 356.000000
1113.426694 -1372.749240 356.000000
1112.862361 -1374.667971 356.000000
1112.298029 -1376.586702 356.000000
1111.733696 -1378.505433 356.000000
1111.169363 -1380.424164 356.000000
1110.605031 -1382.342895 356.000000
1110.040698 -1384.261626 356.000000
1109.476366 -1386.180357 356.000000
1108.912033 -1388.099088 356.000000
1108.347700 -1390.017819 356.000000
1107.783368 -1391.936550 356.000000
1107.219035 -1393.855281 356.000000
1106.654702 -1395.774012 356.000000
1106.090370 -1397.692743 356.000000
1105.526037 -1399.611474 356.000000
1104.961704 -1401.530205 356.000000
1104.397372 -1403.448936 356.000000
1103.833039 -1405.367667 356.000000
1103.268706 -1407.286398 356.000000
1102.704374 -1409.205129 356.000000
1102.140041 -1411.123860 356.000000
1101.575708 -1413.042591 356.000000
1101.011376 -1414.961322 356.000000
1100.447043 -1416.880053 356.000000
1099.882711 -1418.798784 356.000000
1099.318378 -1420.717515 356.000000
1098.754045 -1422.636246 356.000000
1098.189713 -1424.554977 356.000000
1097.625380 -1426.473708 356.000000
1097.061047 -1428.392439 356.000000
1096.496715 -1430.311170 356.000000
1095.932382 -1432.229901 356.000000
1095.368049 -1434.148632 356.000000
1094.803717 -1436.067363 356.000000
1094.239384 -1437.986094 356.000000
1093.675051 -1439.904825 356.000000
1093.110719 -1441.823556 356.000000
1092.546386 -1443.742287 356.000000
1091.982053 -1445.661018 356.000000
1091.417721 -1447.579749 356.000000
1090.853388 -1449.498480 356.000000
1090.289056 -1451.417211 356.000000
1089.724723 -1453.335942 356.000000
1089.160390 -1455.254673 356.000000
1088.596058 -1457.173404 356.000000
1088.031725 -1459.092135 356.000000
1087.467392 -1461.010866 356.000000
1086.903060 -1462.929597 356.000000
1086.338727 -1464.848328 356.000000
1085.774394 -1466.767059 356.000000
1085.210062 -1468.685790 356.000000
1084.645729 -1470.604521 356.000000
1084.081396 -1472.523252 356.000000
1083.517064 -1474.441983 356.000000
1082.952731 -1476.360714 356.000000
1082.388398 -1478.279445 356.000000
1081.824066 -1480.198176 356.000000
1081.259733 -1482.116907 356.000000
1080.695400 -1484.035638 356.000000
1080.131068 -1485.954369 356.000000
1079.566735 -1487.873100 356.000000
1079.002403 -1489.791831 356.000000
1078.438070 -1491.710562 356.000000
1077.873737 -1493.629293 356.000000
1077.309405 -1495.548024 356.000000
1076.745072 -1497.466755 356.000000
1076.180739 -1499.385486 356.000000
1075.616407 -1501.304217 356.000000
1075.052074 -1503.222948 356.000000
1074.487741 -1505.141679 356.000000
1073.923409 -1507.060410 356.000000
1073.359076 -1508.979141 356.000000
1072.794743 -1510.897872 356.000000
1072.230411 -1512.816603 356.000000
1071.666078 -1514.735334 356.000000
1071.101745 -1516.654065 356.000000
1070.537413 -1518.572796 356.000000
1069.973080 -1520.491527 356.000000
1069.408748 -1522.410258 356.000000
1068.844415 -1524.328989 356.000000
1068.280082 -1526.247720 356.000000
1067.715750 -1528.166451 356.000000
1067.151417 -1530.085182 356.000000
1066.587084 -1532.003913 356.000000
1066.022752 -1533.922644 356.000000
1065.458419 -1535.841375 356.000000
1064.894086 -1537.760106 356.000000
1064.329754 -1539.678837 356.000000
1063.765421 -1541.597568 356.000000
1063.201088 -1543.516299 356.000000
1062.636756 -1545.435030 356.000000
1062.072423 -1547.353761 356.000000
1061.508090 -1549.272492 356.000000
1060.943758 -1551.191223 356.000000
1060.379425 -1553.109954 356.000000
1059.815093 -1555.028685 356.000000
1059.250760 -1556.947416 356.000000
1058.686427 -1558.866147 356.000000
1058.122095 -1560.784878 356.000000
1057.557762 -1562.703609 356.000000
1056.993429 -1564.622340 356.000000
1056.000000 -1568.000000 356.000000
1054.059715 -1568.485071 356.000000
1052.119430 -1568.970143 356.000000
1050.179145 -1569.455214 356.000000
1048.238860 -1569.940285 356.000000
1046.298575 -1570.425356 356.000000
1044.358290 -1570.910428 356.000000
1042.418005 -1571.395499 356.000000
1040.477720 -1571.880570 356.000000
1038.537435 -1572.365641 356.000000
1036.597150 -1572.850713 356.000000
1034.656865 -1573.335784 356.000000
1032.716580 -1573.820855 356.000000
1030.776295 -1574.305926 356.000000
1028.836010 -1574.790998 356.000000
1026.895725 -1575.276069 356.000000
1024.955440 -1575.761140 356.000000
1023.015155 -1576.246211 356.000000
1021.074870 -1576.731283 356.000000
1019.134585 -1577.216354 356.000000
1017.194300 -1577.701425 356.000000
1015.254015 -1578.186496 356.000000
1013.313730 -1578.671568 356.000000
1011.373445 -1579.156639 356.000000
1009.433160 -1579.641710 356.000000
1007.492875 -1580.126781 356.000000
1005.552590 -1580.611853 356.000000
1003.612305 -1581.096924 356.000000
1001.672020 -1581.581995 356.000000
999.731735 -1582.067066 356.000000
997.791450 -1582.552138 356.000000
995.851165 -1583.037209 356.000000
993.910880 -1583.522280 356.000000
991.970595 -1584.007351 356.000000
990.030310 -1584.492423 356.000000
988.090025 -1584.977494 356.000000
986.149740 -1585.462565 356.000000
984.209455 -1585.947636 356.000000
982.269170 -1586.432708 356.000000
980.328885 -1586.917779 356.000000
978.388600 -1587.402850 356.000000
976.448315 -1587.887921 356.000000
974.508030 -1588.372993 356.000000
972.567745 -1588.858064 356.000000
970.627460 -1589.343135 356.000000
968.687175 -1589.828206 356.000000
966.746890 -1590.313278 356.000000
964.806605 -1590.798349 356.000000
962.866320 -1591.283420 356.000000
960.926035 -1591.768491 356.000000
958.985750 -1592.253563 356.000000
957.045465 -1592.738634 356.000000
955.105180 -1593.223705 356.000000
953.164895 -1593.708776 356.000000
951.224610 -1594.193848 356.000000
949.284325 -1594.678919 356.000000
947.344040 -1595.163990 356.000000
945.403755 -1595.649061 356.000000
943.463470 -1596.134133 356.000000
941.523185 -1596.619204 356.000000
939.582900 -1597.104275 356.000000
937.642615 -1597.589346 356.000000
935.702330 -1598.074418 356.000000
933.762045 -1598.559489 356.000000
931.821760 -1599.044560 356.000000
929.881475 -1599.529631 356.000000
927.941190 -1600.014703 356.000000
926.000905 -1600.499774 356.000000
924.060620 -1600.984845 356.000000
922.120335 -1601.469916 356.000000
920.180050 -1601.954988 356.000000
918.239765 -1602.440059 356.000000
916.299480 -1602.925130 356.000000
914.359195 -1603.410201 356.000000
912.418910 -1603.895273 356.000000
910.478625 -1604.380344 356.000000
908.538340 -1604.865415 356.000000
906.598055 -1605.350486 356.000000
904.657770 -1605.835558 356.000000
902.717485 -1606.320629 356.000000
900.777200 -1606.805700 356.000000
898.836915 -1607.290771 356.000000
896.896630 -1607.775843 356.000000
894.956345 -1608.260914 356.000000
893.016060 -1608.745985 356.000000
891.075775 -1609.231056 356.000000
889.135490 -1609.716128 356.000000
887.195205 -1610.201199 356.000000
885.254920 -1610.686270 356.000000
883.314635 -1611.171341 356.000000
880.000000 -1612.000000 356.000000
878.275302 -1612.431174 355.083754
876.550604 -1612.862349 354.167509
874.825907 -1613.293523 353.251263
873.101209 -1613.724698 352.335017
871.376511 -1614.155872 351.418772
869.651813 -1614.587047 350.502526
867.927116 -1615.018221 349.586280
866.202418 -1615.449396 348.670034
864.477720 -1615.880570 347.753789
862.753022 -1616.311744 346.837543
861.028324 -1616.742919 345.921297
859.303627 -1617.174093 345.005052
857.578929 -1617.605268 344.088806
855.854231 -1618.036442 343.172560
854.129533 -1618.467617 342.256315
852.404836 -1618.898791 341.340069
850.680138 -1619.329966 340.423823
848.955440 -1619.761140 339.507577
847.230742 -1620.192314 338.591332
845.506044 -1620.623489 337.675086
843.781347 -1621.054663 336.758840
842.056649 -1621.485838 335.842595
840.331951 -1621.917012 334.926349
838.607253 -1622.348187 334.010103
836.882556 -1622.779361 333.093858
835.157858 -1623.210536 332.177612
833.433160 -1623.641710 331.261366
831.708462 -1624.072884 330.345121
829.983764 -1624.504059 329.428875
828.259067 -1624.935233 328.512629
826.534369 -1625.366408 327.596383
824.809671 -1625.797582 326.680138
823.084973 -1626.228757 325.763892
821.360276 -1626.659931 324.847646
819.635578 -1627.091106 323.931401
817.910880 -1627.522280 323.015155
816.186182 -1627.953454 322.098909
814.461484 -1628.384629 321.182664
812.736787 -1628.815803 320.266418
811.012089 -1629.246978 319.350172
809.287391 -1629.678152 318.433927
807.562693 -1630.109327 317.517681
805.837996 -1630.540501 316.601435
804.113298 -1630.971676 315.685189
802.388600 -1631.402850 314.768944
800.663902 -1631.834024 313.852698
798.939204 -1632.265199 312.936452
797.214507 -1632.696373 312.020207
795.489809 -1633.127548 311.103961
793.765111 -1633.558722 310.187715
792.040413 -1633.989897 309.271470
790.315716 -1634.421071 308.355224
788.591018 -1634.852246 307.438978
786.866320 -1635.283420 306.522732
785.141622 -1635.714594 305.606487
783.416924 -1636.145769 304.690241
781.692227 -1636.576943 303.773995
779.967529 -1637.008118 302.857750
778.242831 -1637.439292 301.941504
776.518133 -1637.870467 301.025258
774.793436 -1638.301641 300.109013
773.068738 -1638.732816 299.192767
771.344040 -1639.163990 298.276521
769.619342 -1639.595164 297.360276
767.894644 -1640.026339 296.444030
766.169947 -1640.457513 295.527784
764.445249 -1640.888688 294.611538
762.720551 -1641.319862 293.695293
760.995853 -1641.751037 292.779047
759.271156 -1642.182211 291.862801
757.546458 -1642.613386 290.946556
755.821760 -1643.044560 290.030310
754.097062 -1643.475734 289.114064
752.000000 -1644.000000 288.000000
750.400000 -1644.000000 286.800000
748.800000 -1644.000000 285.600000
747.200000 -1644.000000 284.400000
745.600000 -1644.000000 283.200000
744.000000 -1644.000000 282.000000
742.400000 -1644.000000 280.800000
740.800000 -1644.000000 279.600000
739.200000 -1644.000000 278.400000
737.600000 -1644.000000 277.200000
736.000000 -1644.000000 276.000000
734.400000 -1644.000000 274.800000
732.800000 -1644.000000 273.600000
731.200000 -1644.000000 272.400000
729.600000 -1644.000000 271.200000
728.000000 -1644.000000 270.000000
726.400000 -1644.000000 268.800000
724.800000 -1644.000000 267.600000
723.200000 -1644.000000 266.400000
721.600000 -1644.000000 265.200000
720.000000 -1644.000000 264.000000
718.400000 -1644.000000 262.800000
716.800000 -1644.000000 261.600000
715.200000 -1644.000000 260.400000
713.600000 -1644.000000 259.200000
712.000000 -1644.000000 258.000000
710.400000 -1644.000000 256.800000
708.800000 -1644.000000 255.600000
707.200000 -1644.000000 254.400000
705.600000 -1644.000000 253.200000
704.000000 -1644.000000 252.000000
702.400000 -1644.000000 250.800000
700.800000 -1644.000000 249.600000
699.200000 -1644.000000 248.400000
697.600000 -1644.000000 247.200000
696.000000 -1644.000000 246.000000
694.400000 -1644.000000 244.800000
692.800000 -1644.000000 243.600000
691.200000 -1644.000000 242.400000
689.600000 -1644.000000 241.200000
688.000000 -1644.000000 240.000000
686.400000 -1644.000000 238.800000
684.800000 -1644.000000 237.600000
683.200000 -1644.000000 236.400000
681.600000 -1644.000000 235.200000
680.000000 -1644.000000 234.000000
678.400000 -1644.000000 232.800000
676.800000 -1644.000000 231.600000
675.200000 -1644.000000 230.400000
673.600000 -1644.000000 229.200000
672.000000 -1644.000000 228.000000
670.400000 -1644.000000 226.800000
668.800000 -1644.000000 225.600000
667.200000 -1644.000000 224.400000
665.600000 -1644.000000 223.200000
664.000000 -1644.000000 222.000000
662.400000 -1644.000000 220.800000
660.800000 -1644.000000 219.600000
659.200000 -1644.000000 218.400000
657.600000 -1644.000000 217.200000
656.000000 -1644.000000 216.000000
654.400000 -1644.000000 214.800000
652.800000 -1644.000000 213.600000
651.200000 -1644.000000 212.400000
649.600000 -1644.000000 211.200000
648.000000 -1644.000000 210.000000
646.400000 -1644.000000 208.800000
644.800000 -1644.000000 207.600000
643.200000 -1644.000000 206.400000
641.600000 -1644.000000 205.200000
640.000000 -1644.000000 204.000000
638.400000 -1644.000000 202.800000
636.800000 -1644.000000 201.600000
635.200000 -1644.000000 200.400000
633.600000 -1644.000000 199.200000
632.000000 -1644.000000 198.000000
630.400000 -1644.000000 196.800000
628.800000 -1644.000000 195.600000
627.200000 -1644.000000 194.400000
624.000000 -1644.000000 192.000000
622.342071 -1644.000000 190.881397
620.684142 -1644.000000 189.762795
619.026213 -1644.000000 188.644192
617.368284 -1644.000000 187.525590
615.710356 -1644.000000 186.406987
614.052427 -1644.000000 185.288384
612.394498 -1644.000000 184.169782
610.736569 -1644.000000 183.051179
609.078640 -1644.000000 181.932576
607.420711 -1644.000000 180.813974
605.762782 -1644.000000 179.695371
604.104853 -1644.000000 178.576769
602.446925 -1644.000000 177.458166
600.788996 -1644.000000 176.339563
599.131067 -1644.000000 175.220961
597.473138 -1644.000000 174.102358
595.815209 -1644.000000 172.983755
594.157280 -1644.000000 171.865153
592.499351 -1644.000000 170.746550
590.841422 -1644.000000 169.627948
589.183493 -1644.000000 168.509345
587.525565 -1644.000000 167.390742
585.867636 -1644.000000 166.272140
584.209707 -1644.000000 165.153537
582.551778 -1644.000000 164.034935
580.893849 -1644.000000 162.916332
579.235920 -1644.000000 161.797729
577.577991 -1644.000000 160.679127
575.920062 -1644.000000 159.560524
574.262134 -1644.000000 158.441921
572.604205 -1644.000000 157.323319
570.946276 -1644.000000 156.204716
569.288347 -1644.000000 155.086114
567.630418 -1644.000000 153.967511
565.972489 -1644.000000 152.848908
564.314560 -1644.000000 151.730306
562.656631 -1644.000000 150.611703
560.998702 -1644.000000 149.493100
559.340774 -1644.000000 148.374498
557.682845 -1644.000000 147.255895
556.024916 -1644.000000 146.137293
554.366987 -1644.000000 145.018690
552.709058 -1644.000000 143.900087
551.051129 -1644.000000 142.781485
549.393200 -1644.000000 141.662882
547.735271 -1644.000000 140.544280
546.077343 -1644.000000 139.425677
544.419414 -1644.000000 138.307074
542.761485 -1644.000000 137.188472
541.103556 -1644.000000 136.069869
539.445627 -1644.000000 134.951266
537.787698 -1644.000000 133.832664
536.129769 -1644.000000 132.714061
534.471840 -1644.000000 131.595459
532.813911 -1644.000000 130.476856
531.155983 -1644.000000 129.358253
529.498054 -1644.000000 128.239651
527.840125 -1644.000000 127.121048
526.182196 -1644.000000 126.002445
524.524267 -1644.000000 124.883843
522.866338 -1644.000000 123.765240
521.208409 -1644.000000 122.646638
519.550480 -1644.000000 121.528035
517.892552 -1644.000000 120.409432
516.234623 -1644.000000 119.290830
514.576694 -1644.000000 118.172227
512.918765 -1644.000000 117.053624
511.260836 -1644.000000 115.935022
509.602907 -1644.000000 114.816419
507.944978 -1644.000000 113.697817
506.287049 -1644.000000 112.579214
504.629120 -1644.000000 111.460611
502.971192 -1644.000000 110.342009
501.313263 -1644.000000 109.223406
499.655334 -1644.000000 108.104804
497.997405 -1644.000000 106.986201
496.339476 -1644.000000 105.867598
494.681547 -1644.000000 104.748996
493.023618 -1644.000000 103.630393
491.365689 -1644.000000 102.511790
489.707761 -1644.000000 101.393188
488.049832 -1644.000000 100.274585
486.391903 -1644.000000 99.155983
484.733974 -1644.000000 98.037380
483.076045 -1644.000000 96.918777
481.418116 -1644.000000 95.800175
479.760187 -1644.000000 94.681572
478.102258 -1644.000000 93.562969
476.444329 -1644.000000 92.444367
474.786401 -1644.000000 91.325764
473.128472 -1644.000000 90.207162
471.470543 -1644.000000 89.088559
469.812614 -1644.000000 87.969956
468.154685 -1644.000000 86.851354
466.496756 -1644.000000 85.732751
464.838827 -1644.000000 84.614149
463.180898 -1644.000000 83.495546
461.522970 -1644.000000 82.376943
459.865041 -1644.000000 81.258341
458.207112 -1644.000000 80.139738
456.549183 -1644.000000 79.021135
454.891254 -1644.000000 77.902533
453.233325 -1644.000000 76.783930
451.575396 -1644.000000 75.665328
449.917467 -1644.000000 74.546725
448.259538 -1644.000000 73.428122
446.601610 -1644.000000 72.309520
444.943681 -1644.000000 71.190917
443.285752 -1644.000000 70.072314
441.627823 -1644.000000 68.953712
439.969894 -1644.000000 67.835109
438.311965 -1644.000000 66.716507
436.654036 -1644.000000 65.597904
434.996107 -1644.000000 64.479301
433.338179 -1644.000000 63.360699
431.680250 -1644.000000 62.242096
430.022321 -1644.000000 61.123494
428.364392 -1644.000000 60.004891
426.706463 -1644.000000 58.886288
425.048534 -1644.000000 57.767686
423.390605 -1644.000000 56.649083
421.732676 -1644.000000 55.530480
420.074747 -1644.000000 54.411878
418.416819 -1644.000000 53.293275
416.758890 -1644.000000 52.174673
415.100961 -1644.000000 51.056070
413.443032 -1644.000000 49.937467
411.785103 -1644.000000 48.818865
410.127174 -1644.000000 47.700262
408.469245 -1644.000000 46.581659
406.811316 -1644.000000 45.463057
405.153388 -1644.000000 44.344454
403.495459 -1644.000000 43.225852
401.837530 -1644.000000 42.107249
400.179601 -1644.000000 40.988646
398.521672 -1644.000000 39.870044
396.863743 -1644.000000 38.751441
395.205814 -1644.000000 37.632839
393.547885 -1644.000000 36.514236
391.889956 -1644.000000 35.395633
390.232028 -1644.000000 34.277031
388.574099 -1644.000000 33.158428
386.916170 -1644.000000 32.039825
385.258241 -1644.000000 30.921223
383.600312 -1644.000000 29.802620
381.942383 -1644.000000 28.684018
380.284454 -1644.000000 27.565415
378.626525 -1644.000000 26.446812
376.968597 -1644.000000 25.328210
375.310668 -1644.000000 24.209607
373.652739 -1644.000000 23.091004
